ncols        256
nrows        62
xllcorner    9.01916666506
yllcorner    52.807499997
cellsize     0.012500000000
NODATA_value -999
-999  -999  -999  -999  -999  -999  -999  -999  -999  -999  -999  -999  -999  -999  -999  -999  -999  -999  -999  -999  -999  -999  -999  -999  -999  -999  -999     8     5     9    12     8    -0    -3    12    11     7    10    10    16    -3    -3    -4    -4    -3    -3    -2     0  -999  -999  -999  -999     2     2     4    13    14    12    12    19    35    49    48    37    31    20    31    37    38    46    35    34    30    19    19    11    10    24     4     7     9    11    15    10     4    17    20    17    20    21    15    24    35    32    36    43    43    36    45    50    48    45    50    41    29    26    21    25    30    40    32    33    33    33    45    51    49    47    50    30    43    49    56    51  -999  -999    69    60    40    35    37    26    14    35    32  -999  -999  -999    25    25    21    28    31    33    27    31    44    33    37    42    42    33    33    44    37    39    36    60    40    42    34    33    39    30    38    42    34    41    43    45    46    65    50    56    38    49    57    49    41    46    47    51    56    54    46    38    40    41    44    49    54    49    55    66    57    58    51    35    66    54    39  -999    52    43    43    63  -999  -999  -999  -999  -999  -999    83  -999  -999  -999  -999  -999  -999  -999  -999  -999  -999  -999  -999  -999  -999  -999  -999  -999  -999  -999  -999  -999  -999  -999  -999  -999  -999  -999  -999  -999  -999  -999  -999  -999  -999  -999  -999  -999  -999  -999  -999  -999  -999  -999
-999  -999  -999  -999  -999  -999  -999  -999  -999  -999  -999  -999  -999  -999  -999  -999  -999  -999  -999  -999  -999  -999  -999  -999    13    14    15    10    17    17    16     7    -5    -6     7    12    15    13    18    17    21    -2    -3    -5    -4    -3    -3     0    -2    -1    -3  -999  -999  -999  -999  -999  -999  -999  -999  -999  -999    61    66    45    30    24    22    19    23    26    16    30    23    19    26    18    19    13     2     2    12     8    14    18    16     5    15    14    16    -2    18    13    25    21    36    37    34    38    47    36    49    41    39    31    25    28    28    31    29    26    39    45    43    53    39    52    49    40    41    31    32    44    57    51    57    36    35    36    29    30    31    33     4    32    35  -999  -999  -999    24    12    28    32    32    30    29    32    31    40    41    44    42    27    33    33    41    42    44    50    40    37    48    44    46    27    31    30    34    49    39    43    52    51    45    45    37    52    43    44    41    42    44    46    50    42    49    45    49    44    53    59    45    59    54    58    63    61    57    36    37    39    38    38    40    43    37    37    40  -999  -999  -999  -999  -999    52    53    59    62    60  -999  -999  -999  -999  -999  -999  -999  -999  -999  -999  -999  -999  -999  -999  -999  -999  -999  -999  -999  -999  -999  -999  -999  -999  -999  -999  -999  -999  -999  -999  -999  -999  -999  -999  -999  -999  -999  -999  -999
-999  -999  -999  -999  -999  -999  -999  -999  -999  -999  -999  -999  -999  -999  -999  -999  -999  -999  -999  -999  -999  -999    15    15    17     5    14     5    14    13     8     6    -2     7     7    14    11    20    19    19    33    22    30    -4    -3    -2    -2    -1    -3    -2    -2    -3    -1  -999  -999  -999     6  -999  -999  -999  -999  -999  -999  -999  -999  -999    14    14    18    16    20    37    31    30    23    19    30    10    21    13     3     5     1    -1     2    16    13    12     8    11    16    24    19    26    35    25    37    40    40    48    27    23    34    36    35    38    30    41    45    45    35    62    55    50    43    38    38    45    38    39    43    43    41    37    36    41    28    40    27    33    30    31     9     5    31    22    35    15    30    15    41    21    44    32    32    26    28    35    35    35    40    44    33    42    42    38    38    40    37    33    40    42    43    32    40    37    33    50    44    42    44    57    44    45    53    46    41    47    38    41    44    44    41    42    42    41    44    52    49    52    55    50    53    52    54    52    54    58    39    38    38    38    40    41    39    34    38    47    34    58  -999    69    55    58    50    64    66  -999  -999  -999  -999  -999  -999  -999  -999  -999  -999  -999  -999  -999  -999  -999  -999  -999  -999  -999  -999  -999  -999  -999  -999  -999  -999  -999  -999  -999  -999  -999    51    52    61  -999  -999  -999  -999  -999
-999  -999  -999  -999  -999  -999  -999  -999  -999  -999  -999  -999  -999  -999  -999  -999  -999  -999  -999     7    16    24     6     1     5     4    -5     5    -4    -0    -1     5     9    12    19    14    17    23    29    29    31    30    34     6    -1    -3    -3    -7    -2    -3    -2     0    -2     1    -2    -2    -1    -8    -3    -3    -6  -999  -999  -999  -999     8     3     6     2     1     3     3     5     5     0     6     4     0     0     4    -4     2     5     4    -7     0     2    12    10    25    16    15    11    18    13    16    23    39    42    40    53    25    30    45    52    37    36    40    36    25    24    21    22    30    25    24    38    43    45    43    44    46    28    25    33    16    22    30    28    37    23    11    13     6    22    23    32    22    32    31    38    28    39    18    20    26    28    31    34    36    37    43    44    40    37    35    36    37    36    38    36    35    38    44    39    40    45    41    45    38    37    33    38    44    43    44    48    36    41    42    42    42    41    39    37    39    43    43    53    49    46    43    44    49    54    53    52    53    39    36    37    50    37    36    38    51    50    41    34    59    41    41    48    57    48    53    50    44    56    49    53    60    72  -999  -999  -999  -999  -999  -999  -999  -999  -999  -999  -999  -999  -999  -999  -999  -999    76    70    63  -999  -999  -999  -999  -999  -999    45    54    63    88  -999  -999  -999  -999
-999  -999  -999  -999  -999  -999  -999  -999  -999  -999  -999  -999  -999  -999  -999  -999  -999  -999     8     7     6    -4    -1    -0     9    10     6     6     5     8    10    16    15    21    20    22    24    23    36    41    45    40    36    22    -1    -3    -4    -2    -3    -3     0    -2    -1    -2    -1    -1    -2     0    -1    -2    -1    -2    -6    -5    -3     0    -3    -3    -3    -2    -5     4     0     0     6     0     6    -3     2     1     5    -0    -3    -2     4     5     4     3     5     5    22    19    32    28    38    32    38    38    46    39    14     8    13    26    35    35    20    33    23    14    21    25    16    26    37    32    42    36    35    33    31    32    32    35    23    28    33    25    12    10    10    13     9     6    12    28    28    25    33    36    19    20    29    32    27    29    31    32    35    30    40    51    48    39    35    37    33    36    30    27    40    39    42    40    38    36    36    45    41    44    47    40    39    37    34    54    53    45    45    48    52    37    35    41    37    43    49    51    47    47    40    45    51    53    58    54    52    50    50    35    37    26    35    25    35    63    67    54    45    45    46    53    48    42    40    37    38    49    46    50    54    60    67    70  -999  -999  -999  -999  -999  -999  -999  -999  -999  -999  -999    74    67    68    75    72    64    66    65    65    67    68  -999    57    44    51    57    62    53    60    58  -999
-999  -999  -999  -999  -999  -999  -999  -999  -999  -999  -999  -999  -999  -999  -999  -999  -999  -999  -999    11     4    21    16    20    14    18    11    16    18    21    13    18    18    23    30    28    28    43    51    48    43    50    22    22     7    -3    -3    -3    -3    -2    -4    -1    -1    -2    -1    -1     0     0    -2    -2    -2    -3    -5    -1    -7    -1    12     2     0     4     5    15     4     0     2     6     5     5    -1    -1     3    10     3    -2     0     5     1    -4    -2    -1    -7    22    45    47    41    29    23    31    30    28    23    24    26    50    40    30    40    32    32    23    33    42    53    42    36    26    45    46    44    37    33    28    38    44    34    28    24    25    10    14    14     3     0     0    34    26    26    23    28    27    24    26    21    23    22    27    29    35    31    34    47    39    34    34    33    42    49    41    30    33    36    38    35    34    42    37    39    37    39    44    43    42    39    43    42    45    46    43    57    44    49    36    36    42    38    41    39    41    44    46    40    51    46    46    47    50    44    45    51    31    34    43    34    34    27    20    41    31    35    37    41    41    37    49    37    48    57    48    53    53    59    62    66    80  -999  -999  -999  -999  -999  -999  -999  -999  -999  -999    70    60    60    66    65    61    60    60    57    58    68    52    62    53    58    55    64    64    63    66    61  -999
-999  -999  -999  -999  -999  -999  -999  -999  -999  -999  -999  -999  -999  -999  -999  -999  -999  -999  -999    11    24    18    15    22    24    22    22    23    14    15    21    27    23    28    23    40    33    39    26    40    30    31    27    13     0     4    -3    -2    -4    -2    -1    -1    -3    -3    -3    -3    -3    -2    -3    -3    -3    -2    -1    -2    -1    -3    -2    -4    -3    -2     2     2     2    -1     1     8     7    -1     3     1    -2     5     2    -4    -3    -4    -1    -1     6    -6    -1    -4    -1    28    24     5    14    17    29    38    41    48    41    55    62    60    38    36    30    19    19    36    36    45    39    36    45    38    39    38    42    28    29    39    24    20    31    17    14    12    21    21    23    23    21    21    27    20    24    23    25    28    30    22    22    31    57    37    27    25    32    30    30    29    33    33    33    32    30    38    34    36    33    42    47    51    47    46    50    53    46    45    50    46    52    55    52    36    35    61    40    33    40    47    37    38    37    43    42    30    42    42    45    47    48    47    42    42    36    34    32    42    31    39    30    30    36    32    36    45    41    39    37    33    38    48    44    48    47    48    57    59    69    72    72  -999  -999  -999  -999  -999  -999  -999    67    62    58    61    63    61    63    58    53    68    42    55    52    55    56    53    53    65    56    57    72    61    67  -999
-999  -999  -999  -999  -999  -999  -999  -999  -999  -999  -999  -999  -999  -999  -999  -999  -999  -999     6    16  -999  -999  -999  -999  -999  -999  -999    22    17    24    21    25    26    22    25    33    27    34    27    27    27    19    -6     7    13    25    29    13    -2    -2    -2    -3    -0    -9    -3    -2    -6    -3    -2    -2    -5    -7     1    -1    -4    -4    -1    -3    -3   -10    -2     3     1    -2    -4     4     4    -2     0    -6    -2     0     1    -7    -5     0    -3    -1    -3    -3     1     1    -2    -1     4     7    21    31    40    45    43    45    45    54    51    75    67    56    58    47    43    45    51    49    48    50    50    54    56    48    41    32    32    30    27    16    23     9    10     6    20    22    16    20    10    19    11    16    18    18    22    21    24    24    39    41    49    44    38    35    34    34    28    24    28    32    31    35    29    29    33    47    47    61    49    53    58    56    53    45    52    44    49    54    45    53    33    36    42    27    35    33    43    33    43    36    37    42    40    38    30    41    42    43    41    43    42    44    33    35    35    46    29    25    21    28    33    33    39    28    30    41    38    39    47    42    46    45    51    50    58    66    63    71    73    77  -999  -999  -999  -999  -999  -999    65    56    53    58    59    57    57    55    58    54    57    76    63    52    42    62    44    58    57    62    64    63    64  -999
-999  -999  -999  -999  -999  -999  -999  -999  -999  -999  -999  -999  -999  -999  -999  -999  -999  -999  -999  -999  -999  -999  -999  -999  -999  -999  -999  -999    26    26    26    20    31    26    26    19    29    28    41    18    -5    22    19    24    29    33    25    25    32    28    20    -4    -6     0     3     1    -2    -2    -2     0     0    -3    -3    -4     0    -3    -1     3    -2     6    -3    -1    -2    -3     3    -1     1   -12     2   -10    -3     1    -2    -8    -2    -1    -5    -7    -2    -8    -3     1    -0    -0    -3     1     1     1     4    37    47    48    49    50    56    60    47    64    63    53    42    44    46    57    37    46    46    49    43    46    39    32    37    31    38    46    33    15    12     9    20    17    10    18    18    12    12    18    23    23    14    42    41    59    56    55    46    43    54    39    26    40    27    27    19    29    28    26    24    31    32    36    40    50    57    57    61    60    49    49    57    44    39    34    30    38    25    29    27    33    31    34    32    31    45    45    46    35    45    42    42    40    41    42    41    40    44    40    37    33    32    35    28    23    30    25    29    26    26    29    36    46    40    38    42    39    42    44    49    45    50    58    61    62    80    68  -999  -999    79    71  -999  -999    81    58    51    55    57    57    53    53    57    63    70    79    73    75    60    54    56    50    58    64    66    63    63  -999
-999  -999  -999  -999  -999  -999  -999  -999  -999  -999  -999  -999  -999  -999  -999  -999  -999  -999  -999  -999  -999  -999  -999  -999  -999  -999  -999  -999  -999  -999  -999  -999    26    33    25    12    23    21    28     6    22    35    19    34    37    28    35    28    33    39    31    36    39    12    13     6    -5    -5     1     1    -2    10    15    14    30    12    36     9    42    27    49    43    12    42    32    25    22     2    -1    -0    -1    -4    -5    -6    -4    -2    -1    -2    -2    -1    -2    -4    -1    -6     0     3    -1    -1    -2     2    -2     1     2    10    49    46    50    53    49    46    42    37    36    46    30    48    50    44    48    50    35    32    34    40    40    30    27    40     8     1    20    22    10    18     7    13    25    23    15    15    20    53    47    52    58    73    47    48    53    23    30    23    36    25    22    23    29    30    28    35    35    42    48    48    53    55    58    55    47    45    45    28    27    26    23    33    23    40    22    21    27    20    20    39    36    30    31    32    36    30    29    35    37    40    41    41    39    41    33    32    33    31    30    33    31    29    28    32    29    28    32    31    39    39    43    42    44    47    43    44    50    57    55    70    64    63    70    67    50    63    69    70    69    65    60    54    59    57    62    57    50    57    62    86    95    85    62    56    59    63    58    60    61    69    69  -999
-999  -999  -999  -999  -999  -999  -999  -999  -999  -999  -999  -999  -999  -999  -999  -999  -999  -999  -999  -999  -999  -999  -999  -999  -999  -999  -999  -999  -999  -999  -999    28    19    24     5    27    27    30    31    25    38    40    51    35    40    42    34    36    41    41    40    34    24    -1    28    39    37    21    13    20    35    30    40    28    51    58    59    40    42    50    60    71    64    45    24    28    24     8     3     2    -6    -1    -7   -11     0    -6    -1    -0     1    -1    -3    -0     0     0     0     0    -2    -6    -1    -5    -1     1    -0     3    -6     0     5    41    51    42    47    51    53    46    42    47    34    40    41    43    44    33    36    28    19    22    14    10     9    11    15    17    15    10     9    19     2     5    17    12    31    38    38    54    66    77    53    33    24    23    27    16    15    17    25    28    41    43    39    40    42    47    46    57    64    80    56    38    61    49    35    27    25    36    34    32    16    24    19    25    22    28    16    28    25    31    29    30    43    33    33    36    39    36    38    37    37    39    34    31    32    32    31    31    31    29    32    30    33    33    35    36    35    36    39    28    33    41    40    47    44    48    56    56    60    61    61    53    52    60    63    65    59    61    54    53    57    57    59    56    56    55    59    68    72    85    65    60    59    64    73    69    63    65    67  -999
-999  -999  -999  -999  -999  -999  -999  -999  -999  -999  -999  -999  -999  -999  -999  -999  -999  -999  -999  -999  -999  -999  -999  -999  -999  -999  -999  -999  -999    21    24    28    16     8    15    25    32    33    35    43    44    32    32    31    35    36    43    44    43    38    36    18    13    26    38    31    40    35    35    44    31    46    51    61    59    72    70    60    67    83   112    82    71    62    45    30     5    33    26    12    -4    -8    -5    -1    -7    -2    -1     1    -0    -3    -5    -2     0    -1    -1    -2    -2     1     0     1     2     0     2    -5    -1     4     6     7    26    51    72    63    66    59    41    40    41    36    28    24    12    17    17    29    51    35    22    15     1    11    14    18    12    10    16    12    10     0    13    23    30    43    42    37    51    48    28    28    23    26    18    23    32    36    44    43    36    41    53    51    52    60    57    56    59    50    50    50    48    53    44    32    30    18    29    23    23    20    21    19    25    20    28    26    18    31    44    29    21    35    32    31    36    49    45    33    36    39    35    33    32    32    33    28    22    31    33    30    33    33    32    34    37    36    39    35    45    45    41    54    42    43    44    45    42    48    46    45    63    53    59    61    46    56    61    55    52    54    61    50    53    57    60    76    56    63    64    57    63    60    61    61    84    81    95  -999
-999  -999  -999  -999  -999  -999  -999  -999  -999  -999  -999  -999  -999  -999  -999  -999  -999  -999  -999  -999  -999  -999  -999  -999  -999  -999  -999  -999  -999    30    21    16    15    23    34    36    46    43    42    38    31    34    21    33    39    42    39    38    35    41    40    25    22    33    36    40    37    35    34    43    53    47    55    65    82    89    94   108    87   104    91    72    70    73    44    40    21    26    45    22     2    -3     0    -1    -1    -5    -3    -3    -2     1    -2    -4    -2    -1     1     1     3    -6     1     4    -1     0     0     2     0     0   -12   -12     0    42    64    58    52    51    53    57    54    38    36    20    18    18    27    34    36    43    11    10     6    10    12    14    12    15    12    11    13    14    18    21    34    47    41    32    48    27    15    26    17    18    12    11    19    33    50    58    49    63    68    59    56    55    52    49    39    37    34    30    30    29    19    20    18    21    23    20    25    19    17    19    17    20    23    29    27    25    35    31    28    30    31    29    37    33    37    33    35    38    38    35    31    25    31    31    26    31    33    34    32    32    34    34    35    37    41    46    47    38    41    41    43    43    46    53    47    41    53    49    59    52    57    58    46    47    56    51    50    48    73    64    41    53    56    56    61    63    76    62    57    66    66    78    97    99    91  -999
-999  -999  -999  -999  -999  -999  -999  -999  -999  -999  -999  -999  -999  -999  -999  -999  -999  -999  -999  -999  -999  -999  -999  -999  -999  -999  -999  -999  -999    14    22    12    25    30    26    35    42  -999    28    30    40    26    36    39    42    37    38    40    28    36    32    33    13    18    36    17    37    37    33    34    41    45    68    56    76   108   115   130   105    90    72    61    62    44    32    27    44    50    43    22     2    -6     3    -4    -4    -1    -1    -8    -2    -1    -1     0    -5    -0    -1    -4     2     1     0     1     1     0     0     0     1    -5    -4    -4     3     3    -5    56    55    42    59    61    44    45    33    22    29    27    26    36    34    18     9     4    10     6    10     3    13    11    12    12    11     3    35    28    44    62    31    15    11    12    14    17    18    18    18    25    35    31    33    42    61    53    39    47    49    50    52    55    57    50    47    55    30    25    24    26    19    18    25    21    20    24    17    16    20    32    22    38    32    32    27    27    24    29    28    22    25    27    34    34    34    35    34    38    37    31    32    28    33    32    31    31    33    29    34    32    37    39    41    44    46    44    46    49    46    50    48    51    45    48    63    60    49    55    50    56    55    50    63    47    47    47    48    50    49    51    54    62    64    67    67    65    85    75    67    87    94    92    94  -999
-999  -999  -999  -999  -999  -999  -999  -999  -999  -999  -999  -999  -999  -999  -999  -999  -999  -999  -999  -999  -999  -999  -999  -999  -999  -999  -999  -999  -999  -999    17    17    20    25    35    35  -999  -999    29    32    32    41  -999  -999    32    37    35    34    43    35    41    38    30    18    10    19    31    36    32    35    43    43    64    82    90   106    98   127   112    88    83    90    72    77    45    47    33    28     8     5     2     6    -5    -5     3    -4    -1    -4    -1    -2    -2   -12     3    -1    -5    -2    -2    -2     0    -2     0    -2    -5    -6    -4    -0    -1    -2     0     1    -0     5    -6    35    58    70    54    42    49    32    22    30    36     4     4     1    11     5     4     8     5    10     9    18    17    15     9    13    13    24    32    40     5     6    19    29    13    15    19    14    30    31    38    46    38    36    42    43    54    62    57    72    54    56    40    37    45    43    27    36    39    31    19    24    25    14    19    18    25    14    26    13    14    32    25    23    28    25    27    28    17    29    33    33    29    36    30    33    33    30    33    35    37    30    29    29    24    38    28    29    32    32    41    50    53    69    87    85    92    98    77   100   109   108    79    69    37    42    45    46    52    59    47    50    49    48    47    48    48    45    49    63    61    64    57    62    61    69    56    66    66    67    73    84    81  -999
-999  -999  -999  -999  -999  -999  -999  -999  -999  -999  -999  -999  -999  -999  -999  -999  -999  -999  -999  -999  -999  -999  -999  -999  -999  -999  -999  -999  -999  -999  -999    24  -999  -999  -999  -999  -999  -999  -999    48  -999  -999  -999  -999  -999    30    36    60    39    38    41    47    43    21    21    23    23    26    37    32    47    67    79    88   101   103   112   125   102    87    87    87    71    57    26    24    18    17     8    -2    12    17    24    16    -0     8    14    -5    -2    -1    -1    -3    -6     2    -1    -4    -1     1    -3    -1    -2    -5     2    -0     1    -0    -4    -4     1     0     2     1     3    -0     4   -12    28    26    26    30    20    30    38    20     6     6     4     5     5    11    10    16    47    43    26    21    23    12    12     8     8    11     5     3    15     9    14    22    30    42    31    31    38    30    35    31    43    55    49    54    52    36    35    32    30    36    41    48    49    40    32    17    15    12    27     5    17    20    19    20    21    30    20    22    23    25    27    26    22    23    24    22    31    28    28    27    28    23    31    30    41    36    29    30    31    31    41    30    30    31    33    37    51    52    61    74    69    80   100   105    94    80    81    48    45    68    63    62    55    45    54    55    55    47    53    49    44    48    49    45    55    54    62    63    59    61    59    60    61    65    68    70    63    70    79  -999
-999  -999  -999  -999  -999  -999  -999  -999  -999  -999  -999  -999  -999  -999  -999  -999  -999  -999  -999  -999  -999  -999  -999  -999  -999  -999  -999  -999  -999  -999    30  -999  -999  -999  -999  -999  -999  -999  -999  -999  -999  -999  -999  -999  -999    37    33    28    22    26    30    27    23    32    36    27     5    20    35    38    63    72    88    84    94   111   108   100    95    83    76    82    80    78    66    48    44    25     6    -0    17    29     9    13    18    25    32    17    21    -2    -2    -4    -3    -1     2    -5    -1     2    -0     2    -0    -6     0     2    -0     2    -8    -7     0     1     1     0     1     2    10     2     1     9    -7    10    30    34    41    57    33     6     1     6    10    18    14    36    46    35    16     6     6     7     9    10    10    10     9     4     5    10    11     8     8     7     9    14    24    34    40    28    27    38    40    38    24    25    17    17    22    30    36    35    30    22    22    10    20    29    13    16     8    15    23    18    20    27    24    27    29    46    35    35    33    30    22    39    35    25    25    29    30    31    40    39    30    27    27    31    26    34    25    40    40    44    32    46    48    51    52    54    70    89    91    77    81    71    60    57    64    53    61    67    60    43    52    51    54    51    48    45    47    51    51    53    48    50    56    58    57    59    61    66    71    60    62    69    64    66    73  -999
-999  -999  -999  -999  -999  -999  -999  -999  -999  -999  -999  -999  -999  -999  -999  -999  -999  -999  -999  -999  -999  -999  -999  -999  -999  -999  -999  -999  -999  -999  -999  -999  -999  -999  -999  -999  -999  -999  -999  -999  -999  -999  -999  -999  -999    30    32    33    36    35    43    42    32    29    34    27    11    22    35    38    56    66    85    95    94    88    73   111    88    64    75    77    68    79    82    53    36    19     9     9    12    10    16    27    52    46    37    32    20     7    -1     1     3     3     4     2     0     0    -3     1    -1     2     3    -4    -2     3     0     2     2     1     2     3     4     0    12     5     2     1     4     7     3     1     2    -1     2     1     5     5     2     6     2     1     3     4     3    -3     3     5     5     5     5    17     9     4     9     3     7     6     3     0     7     1     4    10    11     8    17    21    20    22    15    16    18     8     8    10    11    16    24     7    22     8    12     4     8    10    23    23    14    18    21    22    32    30    29    31    36    49    46    45    26    20    21    28    27    29    35    29    30    37    33    26    45    34    35    24    32    24    37    33    38    27    43    47    58    56    65    71    80    77    78    70    64    76    52    60    57    71    57    57    62    52    49    57    59    51    56    54    53    58    57    55    57    62    61    60    61    59    65    67    67    86    70    74    88  -999
-999  -999  -999  -999  -999  -999  -999  -999  -999  -999  -999  -999  -999  -999  -999  -999  -999  -999  -999  -999  -999  -999  -999  -999  -999  -999  -999  -999  -999  -999  -999  -999  -999  -999  -999  -999  -999  -999  -999  -999  -999  -999  -999  -999  -999  -999  -999    45    30    47    62    32    40    28    21    21    10    24    35    48    58    67    70    85    77    73    60    63    79    73    63    69    77    78    88    67    52    41    16     7    19    22    29    34    44    19     8    22    31    17     7     3     3     1     6     3     3     5     1    -1     0     0     1     2     0     0    -1     1    -4     1     2     2    -0    -5    -1     0    -1    -2     1    -3     3     4     4     5     3     2     3     4     2     4     5     4     5     4     1     3    -1    -1    -1    -0     5     3     8    -0    -2    -1     6     8     8     6     6     5     5     4     6     4     8    11    16     8     3    13    11     8    18     9    12    17    17     9    11    10     7    10    14    17    13    13    17    19    22    28    32    45    33    40    49    54    47    53    34    33    24    31    33    26    25    26    28    40    36    35    35    33    29    37    24    37    33    35    30    23    37    38    40    48    52    61    74    79    94    66    57    56    58    60    60    78    74    87    79    63    52    59    50    48    49    49    53    56    57    59    60    63    63    68    65    69    72    62    71    66    68    77    72  -999
-999  -999  -999  -999  -999  -999  -999  -999  -999  -999  -999  -999  -999  -999  -999  -999  -999  -999  -999  -999  -999  -999  -999  -999  -999  -999  -999  -999  -999  -999  -999  -999  -999  -999  -999  -999  -999  -999  -999  -999  -999  -999  -999  -999  -999  -999  -999  -999  -999  -999  -999    54    37    48    39    22    21    32    44    46    60    66    64    72    70    64    64    52    85    63    48    53    80    71    67    54    16    13    12    16    30    48    50    46    38    34    33    23    21    17     4     6     5     1     7     7     3     3     1    -4    -7     1     1     4     5    -1     6    -2     2     1    -4    -4     3    -1     3     3    -5    -5    -6     1     3     6     4     7     5     5     4     5     6     5     3     2     4     2     3     4     4    -6     1     5     5     5     3    -2     6     6     3     1     7     7     8     4     3     5     8     9     7    10     4     8     2    13    14     6     5    12    11    22    13    11    13    16    14    17    27    14    15    16    20    23    29    50    40    49    52    60    67    52    47    35    34    27    23    28    18    22    24    32    33    43    42    43    41    40    35    31    29    22    22    31    41    35    43    40    42    46    63    61    69    71    59    54    50    48    61    69    64    76   105   109   105    92    71    64    57    57    51    53    53    55    55    57    57    62    63    55    64    66    67    68    63    70    74    76    77  -999
-999  -999  -999  -999  -999  -999  -999  -999  -999  -999  -999  -999  -999  -999  -999  -999  -999  -999  -999  -999  -999  -999  -999  -999  -999  -999  -999  -999  -999  -999  -999  -999  -999  -999  -999  -999  -999  -999  -999  -999  -999  -999  -999  -999  -999  -999  -999  -999  -999  -999  -999  -999  -999    60    47    33    25    11    23    34    52    60    62    85    78    84    63    55    63    70    50    44    61    57    58    43    15    27    27    44    56    67    59    46    49    67    45    53    51    35    15     9    10     8     7     2     6     8    -1    -5     3     3    -7     2     1     4     3     3     3     0    -2    -2     6     1     0    11    -5    -2     1     0    10     2    -3    -2     1     1     3    11     1     1     2     1     1    -3     4    -4     1     2     5     5     5     5     5     7     5     6     7     7     7     3    10     6     6     6     7     5     6     5     4     7     8     8     4     7    10    12    13    11    13    14    15    15    15    16    20    35    23    23    34    33    42    37    49    46    52    52    61    64    50    35    27    36    18    17    19    24    38    36    37    39    50    48    41    43    38    29    33    22    39    28    37    45    38    41    38    42    45    56    50    55    44    43    45    49    56    66    72    84    95   116   113   101    80    71    70    58    56    54    53    55    57    57    60    59    59    68    64    65    67    66    61    67    67    73    70  -999
-999  -999  -999  -999  -999  -999  -999  -999  -999  -999  -999  -999  -999  -999  -999  -999  -999  -999  -999  -999  -999  -999  -999  -999  -999  -999  -999  -999  -999  -999  -999  -999  -999  -999  -999  -999  -999  -999  -999  -999  -999  -999  -999  -999  -999  -999  -999  -999  -999  -999  -999  -999  -999  -999    52    41    38    40    22    35    47    55    63    60    72    71    64    44    58    51    50    47    57    64    52    20    13    47    26    33    36    57    37    39    49    45    36    34    31    34    36    20     9     9     8     4    13    10    -3     2    -2    -1     0    -0     2     3     0     2     3     1     7     5    -4    -1     1    -3    -3    -0     3    -3    -1    -3     4    -1    -5    -2     7     5     4     4     5     4     6     4     3     5     3     6     3     5     4     1     3     5     2     1     6     6     6     9     7    15    15     4     5     7     8    18    12     7    20    10    11     9    13    15    10    10    25    21    21    26    27    17    27    26    32    23    26    34    42    49    56    62    50    44    41    39    30    31    19    18    15    13    22    19    24    29    40    42    45    34    40    38    25    29    30    18    44    31    35    37    42    39    34    37    37    44    49    42    46    39    43    45    50    62    66    91   113   134   124    99    83    91    88    77    70    59    61    63    62    59    55    74    70    60    63    60    62    64    75    71    75    74    71  -999
-999  -999  -999  -999  -999  -999  -999  -999  -999  -999  -999  -999  -999  -999  -999  -999  -999  -999  -999  -999  -999  -999  -999  -999  -999  -999  -999  -999  -999  -999  -999  -999  -999  -999  -999  -999  -999  -999  -999  -999  -999  -999  -999  -999  -999  -999  -999  -999  -999  -999  -999  -999  -999  -999    41    51    50    38    29    25    41    50    66    84    96    92    87    44    36    33    36    42    31    11    24    30    22    18    34    38    40    48    46    44    37    32    31    34    21    21    20    10    11    10     2    14    13     4     5     5     7     8     8     5     6     3     1     3     6     8     1     9     6     0     2    -0    12    -2     3     4     5     3     4     2     3     6    -2     6     7     7     6     4     0     6     6     4     5     2     3     2     6     7     1     3     7     6     7     6     4     7     5     8     7    10     7     9     3    13     8    -3    12     0     9    12    15    14    15    15    26    24    26    28    30    34    34    34    30    29    41    39    47    47    47    50    62    51    29    20    19    27    39    21    23    32    19    24    22    29    41    38    40    32    29    29    23    32    31    38    37    22    27    46    38    36    37    40    38    46    36    44    26    38    49    41    53    60    79    88   112   147   154   120   114   105    96   106   113   111    95   100    96    81    58    54    56    54    64    61    63    62    59    68    71    73    82  -999
-999  -999  -999  -999  -999  -999  -999  -999  -999  -999  -999  -999  -999  -999  -999  -999  -999  -999  -999  -999  -999  -999  -999  -999  -999  -999  -999  -999  -999  -999  -999  -999  -999  -999  -999  -999  -999  -999  -999  -999  -999  -999  -999  -999  -999  -999  -999  -999  -999  -999  -999  -999  -999  -999    56    52    58    54    44    35    24    38    66    78    85    77    63    50    40    33    33    35    37    47    26    53    50    43    26    37    52    53    68    66    43    40    30    31    15    28    38    23    10     7    13    10    13     4     3     2     2     9     9    12    15    12     9    13     8    12     4     3    26    28    28    31    33    23    18    22    17    17    33    13    26     2     5     7    13     2    10    15     9     1     9    -5     8    12     1     5     7     8     9     8     7     7     7     6    11     8     8     9    10    12     8    11    22    -0     9    -0     4     9    10     6    28    17    23    18    17    14    20    49    49    42    39    32    20    28    24    21    30    42    49    27    22    25    15    19    20    19    21    23    25    16    21    19    24    30    38    36    27    33    26    31    25    29    26    33    31    24    36    43    39    33    37    38    37    37    35    34    39    38    39    42    45    52    64    77    97   111   103   117   127   125   112   122   111   120    98    85    90    72    59    67    56    55    55    60    61    67    67    69    71    77    94  -999
-999  -999  -999  -999  -999  -999  -999  -999  -999  -999  -999  -999  -999  -999  -999  -999  -999  -999  -999  -999  -999  -999  -999  -999  -999  -999  -999  -999  -999  -999  -999  -999  -999  -999  -999  -999  -999  -999  -999  -999  -999  -999  -999  -999  -999  -999  -999  -999  -999  -999  -999  -999  -999  -999  -999    56    58    54    59    49    35    33    53    70    78    58    59    37    30    26    22    55    46    47    49    60    38    38    28    31    39    50    74    81    65    41    42    27    40    45    50    33    21     9    11    17    19     2     5    12     7    12    18    22    15    25    27    23    23    21    12     8     9    23    15    21    28    39    27    29    22    31    28    32    37    43    18    15    15     8     6     8    10    13    14    11    14    17    14    12    12    13    19    -0     6     6     7     7     7    21    -0     3     9    12    21     4    10     7     3     4    12    -3    10    10     9    19    14    21    23    20    23    26    41    28    30    31    34    25    29    39    39    22    15    17    18    14    23    30    26    21    18    18    15    21    21    15    22    23    27    29    31    23    27    29    33    42    26    34    45    37    38    39    36    32    32    34    34    34    41    37    35    34    38    43    45    48    53    76    78    86    95    92    83    83    76   101   107    95    82    70    64    63    54    52    56    61    62    65    67    68    82    84    91    93   112  -999
-999  -999  -999  -999  -999  -999  -999  -999  -999  -999  -999  -999  -999  -999  -999  -999  -999  -999  -999  -999  -999  -999  -999  -999  -999  -999  -999  -999  -999  -999  -999  -999  -999  -999  -999  -999  -999  -999  -999  -999  -999  -999  -999  -999  -999  -999  -999  -999  -999  -999  -999  -999  -999  -999  -999  -999  -999    69    65    73    60    34    41    45    70    62    45    32    31    33    37    55    70    67    90    78    48    74    43    33    37    55    94    89    80    73    41    35    39    40    43    45    36     4    12    15    29    39    23    29    46    41    56    54    49    37    51    35    42    43    35    15    17    17    23    31    25    41    60    47    44    40    27    35    50    56    46    13    26    31    30    31    59    72    47    46    39    19    31    38    33    23    36     3     9     6    10     5     5     5     8     9     3     6    14    16    12     9     6     6    -3    -0     7    10    11     5    12    11    18    18    22    19    37    36    28    26    25    28    29    17    13    18    18    18    23    31    19    15    26    33    27    18    19    28    22    21    25    26    30    23    36    23    34    44    29    35    21    43    38    37    40    37    36    42    30    33    31    32    30    33    34    36    38    41    42    43    48    54    51    58    68    68    70    67    62    65    63    57    67    57    56    52    51    60    66    62    68    68    69    78    88    99   111   111    96  -999
-999  -999  -999  -999  -999  -999  -999  -999  -999  -999  -999  -999  -999  -999  -999  -999  -999  -999  -999  -999  -999  -999  -999  -999  -999  -999  -999  -999  -999  -999  -999  -999  -999  -999  -999  -999  -999  -999  -999  -999  -999  -999  -999  -999  -999  -999  -999  -999  -999  -999  -999  -999  -999  -999  -999  -999  -999  -999  -999    57    49    45    38    62    70    49    32    30    39    37    56    55    68    76    88    94    88    77    51    37    39    51    78    83    51    44    44    42    51    96    67    65    28    13    14    11    31    28    46    49    44    37    34    32    43    43    37    36    39    22    23    11    27    31    43    38    41    39    53    64    54    42    34    58    48    51    43    33     9    29    43    42    54    55    44    61    56    40    37    35    49    42    45    44    18     6     4     1    10    10     7     7     7     7     6    14    15    20     7     4     2     7    10     6    12     6     9    12    14    11    14    23    31    21    25    21    25    24    15    19    16    16    18    18    18    19    18    19    19    21    23    17    20    22    22    23    28    24    24    27    31    51    47    49    45    30    34    37    31    34    47    32    36    27    43    29    42    31    31    32    33    38    36    37    39    41    43    45    58    77    62    64    67    62    59    57    58    54    54    51    55    57    55    57    76    63    68    66    66    83    93    96    96    92    94  -999
-999  -999  -999  -999  -999  -999  -999  -999  -999  -999  -999  -999  -999  -999  -999  -999  -999  -999  -999  -999  -999  -999  -999  -999  -999  -999  -999  -999  -999  -999  -999  -999  -999  -999  -999  -999  -999  -999  -999  -999  -999  -999  -999  -999  -999  -999  -999  -999  -999  -999  -999  -999  -999  -999  -999  -999  -999  -999  -999  -999    60    45    39    42    55    52    42    45    33    46    53    40    54    75    91   113    91    82    50    41    54    78   106    87    80    58    54    59    69    59    49    46    16    15    23    26    45    36    39    61    34    32    28    28    34    30    28    31    34    39    26    14    23    26    28    45    49    44    54    57    56    64    48    51    41    50    34    38    20    35    23    42    60    51    45    35    46    51    56    55    66    58    55    52    47    50    13    11     8     4     7     7     8     6     8     6    18    13    14    17    16     7     7     7     8    11    12     8    12    12    15    18    20    17    22    15    23     9    23    16    18    21    27    22    24    23    36    24    22    23    20    20    14    20    22    20    19    21    31    29    33    23    43    46    33    36    40    34    36    33    33    34    32    32    29    25    26    28    29    32    31    35    41    40    38    46    46    53    54    58    60    58    56    61    56    52    46    48    49    51    55    52    57    68    62    62    65    66    68    76    84    82    79    85    89  -999
-999  -999  -999  -999  -999  -999  -999  -999  -999  -999  -999  -999  -999  -999  -999  -999  -999  -999  -999  -999  -999  -999  -999  -999  -999  -999  -999  -999  -999  -999  -999  -999  -999  -999  -999  -999  -999  -999  -999  -999  -999  -999  -999  -999  -999  -999  -999  -999  -999  -999  -999  -999  -999  -999  -999  -999  -999  -999  -999  -999  -999    58    60    53    57    61    46    44    36    46    48    57    70    86    87   103   110    89    56    47    60    81   125   107    77    67    58    49    52    44    47    39    26    25    27    31    31    51    53    66    54    43    48    41    44    26    20    26    29    19    33     5    12    22    28    49    50    52    48    51    58    75    72    51    63    57    60    37    31    42    45    28    45    21    22    33    42    39    52    54    68    86    81    76    66    70    46    59    28    30    53    12     4     9     7     8     2     8    23    15    13     6     9     2     7    22     7    15    20    11     9    13    13    22    12    14    15    16    28    36    24    40    37    44    52    57    66    55    44    33    22    28    20    27    20    19    21    23    35    40    40    41    30    41    30    35    35    35    40    52    57    34    36    32    31    27    25    29    29    30    34    32    38    37    39    45    47    55    65    53    58    54    56    56    52    56    49    48    49    51    47    58    62    53    56    57    60    64    68    71    73    92    98   107   103  -999
-999  -999  -999  -999  -999  -999  -999  -999  -999  -999  -999  -999  -999  -999  -999  -999  -999  -999  -999  -999  -999  -999  -999  -999  -999  -999  -999  -999  -999  -999  -999  -999  -999  -999  -999  -999  -999  -999  -999  -999  -999  -999  -999  -999  -999  -999  -999  -999  -999  -999  -999  -999  -999  -999  -999  -999  -999  -999  -999  -999  -999    53    48    50    44    51    54    55    48    54    74    67    87    96   110   108    94    95    82    75    50    81    95   103   116   111    82    69    46    32    37    34    30    29    24    24    51    51    64    91    76    65    53    43    29    31    21    39    32    33    15     6    17    27    42    44    54    52    49    40    58    88    62    60    54    64    65    35    35    41    55    49    56    44    32    42    57    53    54    43    52    91    82    84    80    75    65    38    16    39    54    63    54     5     8     8     7    10     7     4    15    14    14     2    14    10     4    10     7     8    11    11    12    11    11    17    12    18    20    35    24    32    31    40    36    50    37    32    28    23    28    27    15    26    21    40    32    35    26    37    40    27    29    21    22    24    35    46    59    67    59    52    56    55    47    40    26    32    24    31    33    43    52    47    51    48    51    57    47    49    55    53    53    59    56    55    48    47    52    49    45    54    54    54    59    56    59    59    67    76    92   100   109   101    99  -999
-999  -999  -999  -999  -999  -999  -999  -999  -999  -999  -999  -999  -999  -999  -999  -999  -999  -999  -999  -999  -999  -999  -999  -999  -999  -999  -999  -999  -999  -999  -999  -999  -999  -999  -999  -999  -999  -999  -999  -999  -999  -999  -999  -999  -999  -999  -999  -999  -999  -999  -999  -999  -999  -999  -999  -999  -999  -999  -999  -999  -999  -999  -999  -999  -999    54  -999    52    47    65    71    73    89    99   112    98    85    80    84    81    46    78   110   108   112   102    80    62    60    68    64    55    54    38    28    28    28    48    57    63    71    45    45    36    39    44    41    45    34    40    38    13    30    27    39    48    46    46    42    41    71    63    56    57    63    60    46    35    50    57    54    69    63    50    51    45    27    69    47    57    79    82    86    66    69    64    23    42    34    52    57    63    64    38    16    10     8     7     7     8     4     0    16    16    11     9    10     4    10    11     7    26    15    11    18    21    18    21    28    17    30    41    53    45    20    25    17    19    18    23    12    25    27    15    32    37    29    28    26    23    22    22    34    34    31    39    49    58    63    62    44    42    65    46    55    26    20    28    24    28    37    40    49    54    53    46    52    57    52    51    47    58    55    67    67    62    56    50    48    53    43    47    55    52    53    61    55    60    64    81    87    87    86    96    91  -999
-999  -999  -999  -999  -999  -999  -999  -999  -999  -999  -999  -999  -999  -999  -999  -999  -999  -999  -999  -999  -999  -999  -999  -999  -999  -999  -999  -999  -999  -999  -999  -999  -999  -999  -999  -999  -999  -999  -999  -999  -999  -999  -999  -999  -999  -999  -999  -999  -999  -999  -999  -999  -999  -999  -999  -999  -999  -999  -999  -999  -999  -999  -999  -999  -999  -999  -999    56    63    66    67    78   107   108    99    90    75    57    75    80    48    64    94    84    85    99    86   105    90    71    97    75    71    44    38    41    50    55    53    48    35    35    49    41    50    45    43    44    42    37    34    19    29    28    23    28    30    38    38    51    44    46    63    72    74    44    32    60    62    59    84    73    49    54    44    38    36    36    37    61    61    77    88    66    57    52    84    55    47    39    66    66    33    41    39    66    29     3    10    12     9     6    20    10    12    10    14    17    20     7    10    11    10    15     6    16    15    16    22    16    15    22    21    21    13    10    14    16    20    26    18    19    34    27    13    19    28    37    28    21    23    35    46    41    43    46    61    51    51    49    38    43    47    46    39    26    22    23    27    38    48    49    51    55    64    61    58    63    50    49    52    53    58    56    59    54    53    60    56    49    38    40    49    49    46    54    53    58    68    83    77    80    86    87    83  -999
-999  -999  -999  -999  -999  -999  -999  -999  -999  -999  -999  -999  -999  -999  -999  -999  -999  -999  -999  -999  -999  -999  -999  -999  -999  -999  -999  -999  -999  -999  -999  -999  -999  -999  -999  -999  -999  -999  -999  -999  -999  -999  -999  -999  -999  -999  -999  -999  -999  -999  -999  -999  -999  -999  -999  -999  -999  -999  -999  -999  -999  -999  -999  -999  -999  -999  -999  -999  -999    80   111   100   100   103   110    92    80    76    84    61    49    63    87    72    77    95   104   111    98    99    88    83    63    57    36    41    39    49    43    78    61    51    55    49    36    38    48    46    35    20    18    28     1    23    14    16    47    51    42    42    29    49    57    71    68    49    47    54    71    89    97    89    71    50    46    44    46    40    41    41    51    57    72    66    80    95    96    47    38    66    66    60    72    68    79    60    56    63    35     4     5     9     8     5     6     7     2    11    10    15    11    11    23    17    18    21    16    15    10    15    13    15    20    19    13    20    11    17    23    14    17    18    30    15    14    17    27    21    17    23    31    43    42    35    38    43    35    55    40    39    34    36    34    30    26    23    25    26    31    41    58    50    50    45    48    54    56    53    53    46    48    55    57    57    57    53    55    60    49    49    46    43    47    47    59    50    54    63    77    73    78    77    78    78    70  -999
-999  -999  -999  -999  -999  -999  -999  -999  -999  -999  -999  -999  -999  -999  -999  -999  -999  -999  -999  -999  -999  -999  -999  -999  -999  -999  -999  -999  -999  -999  -999  -999  -999  -999  -999  -999  -999  -999  -999  -999  -999  -999  -999  -999  -999  -999  -999  -999  -999  -999  -999  -999  -999  -999  -999  -999  -999  -999  -999  -999  -999  -999  -999  -999  -999  -999  -999  -999  -999  -999  -999   123   116   141   138   121   100    94    80    71    55    76    67    71    85    90    82    81    92    77    90    89    84    55    44    36    37    68    78    77    70    58    58    58    56    52    46    42    40    28    35    38    36    21    21    35    43    40    30    48    31    37    52    51    62    57    51    60    69    60    63    79    82    75    47    50    43    60    50    38    51    39    57    58    59    66    55    48    50    75    87    95    67    57    48    67    41    35    30    20    34     5    10     8     9     9    11    11     1    12     8     1    13     2     8    13     9    13    13    12    12    14    15    26    16    24    22    19    23    21    16    11    12    18    24    24    19    17    24    28    28    32    52    32    37    46    46    48    46    48    64    54    32    31    25    18    24    28    40    37    42    46    48    49    52    66    57    59    56    45    47    53    56    54    56    54    55    51    43    49    54    40    44    56    58    48    51    57    55    57    55    72    70    60    59  -999
-999  -999  -999  -999  -999  -999  -999  -999  -999  -999  -999  -999  -999  -999  -999  -999  -999  -999  -999  -999  -999  -999  -999  -999  -999  -999  -999  -999  -999  -999  -999  -999  -999  -999  -999  -999  -999  -999  -999  -999  -999  -999  -999  -999  -999  -999  -999  -999  -999  -999  -999  -999  -999  -999  -999  -999  -999  -999  -999  -999  -999  -999  -999  -999  -999  -999  -999  -999  -999    66    90   101   101   105   123    93   102    71    66    58    65    78    71    70    77    70    75    80    61    71    75    90    80    80    57    40    43    59    67    74   101    95    80    80    62    45    43    38    37    42    25    57    58    47    23    23    17    18    17    48    34    32    34    41    52    55    58    56    67    65    60    73    80    75    74    63    46    47    51    63    70    40    65    69    70    85    58    79    77    67    97    69    52    37    31    43    23    15    13    14    15    18    10     4     6     9     9     1     6    13    10    11     9    33    13    21    11    17    10    11    12    10    11    13    12    13    14    20    17    14    18    10    10    14    21    18    18    21    20    22    27    33    29    39    43    15    20    41    37    44    41    33    26    27    20    32    37    28    34    37    42    41    47    44    52    50    49    68    52    45    55    58    54    53    59    54    49    44    45    46    43    53    48    50    50    54    66    73    76    81    76    74    64    71    64  -999
-999  -999  -999  -999  -999  -999  -999  -999  -999  -999  -999  -999  -999  -999  -999  -999  -999  -999  -999  -999  -999  -999  -999  -999  -999  -999  -999  -999  -999  -999  -999  -999  -999  -999  -999  -999  -999  -999  -999  -999  -999  -999  -999  -999  -999  -999  -999  -999  -999  -999  -999  -999  -999  -999  -999  -999  -999  -999  -999  -999  -999  -999  -999  -999  -999  -999  -999  -999  -999    87    81    85    88   102    81    94    88    69    76    58    70    78    88    78    73    61    60    47    71    44    60    49    47    55    47    49    30    70    76    95   103   109   102    91    80    53    47    28    34    38    28    23    39    23    26    17    25    19    20    16    38    33    38    45    59    44    51    50    59    64    57    75    49    70    64    78    45    45    62    51    71    51    72    86    69    86    79    76    48    74    75    93    61    52    28    27    27    78    54    38    35    34     3    10    10    11     6    12     9     9     8     9    14     8     5    13    22    13    12    16     9     9    11    12    17    13    15    15    10    16    17    10    16    12    22    24    15    24    30    28    31    40    47    55    11     7    50    36    31    27    24    24    36    27    20    28    49    31    36    34    38    40    43    45    49    57    50    61    58    42    54    66    54    57    66    50    45    38    51    59    54    49    45    72    65    77    77    88    89    95    79    67    74    70    73  -999
-999  -999  -999  -999  -999  -999  -999  -999  -999  -999  -999  -999  -999  -999  -999  -999  -999  -999  -999  -999  -999  -999  -999  -999  -999  -999  -999  -999  -999  -999  -999  -999  -999  -999  -999  -999  -999  -999  -999  -999  -999  -999  -999  -999  -999  -999  -999  -999  -999  -999  -999  -999  -999  -999  -999  -999  -999  -999  -999  -999  -999  -999  -999  -999  -999  -999  -999  -999    85    80    99    86    73    82    92    94    83    78    67    86    89    91   105   107    83    79    65    43    47    52    54    80    82    91    87    71    54    73    77    86   112   100    90    74    79    83    85    70    47    48    44    33    41    63    60    36    29    22    39    50    10    26    41    31    44    50    55    50    67    70    48    67    59    63    85    69    61    50    72    62    62    64    79    90    83    91    95    51    79    84    93    83    59    66    54    66    54    62    42    47    51    31    21     8    10    10    10    11    11    10    10     9    10    12    13    11     8    13    13     1    11    17    35    22    24    10    14    20    24    23    24    14    19    29     8    25    12    15    42    39    41    35    15    16    41    35    27    31    35    30    33    26    21    22    28    23    26    28    31    34    36    42    41    43    48    47    50    51    60    42    53    56    58    69    55    44    40    42    49    54    47    56    59    66    77    73    79    85    94    99    72    73    78    80    86  -999
-999  -999  -999  -999  -999  -999  -999  -999  -999  -999  -999  -999  -999  -999  -999  -999  -999  -999  -999  -999  -999  -999  -999  -999  -999  -999  -999  -999  -999  -999  -999  -999  -999  -999  -999  -999  -999  -999  -999  -999  -999  -999  -999  -999  -999  -999  -999  -999  -999  -999  -999  -999  -999  -999  -999  -999  -999  -999  -999  -999  -999  -999  -999  -999  -999  -999  -999  -999  -999  -999   100    94    78    68    80    75    87    88    85   103    95    92    90    89    60    43    44    60    65    71    68    64    78    87    79    83    55    74    79    96    92   105    93    94    97   115    75    66    67    73    66    67    64    85    53    49    28    30    43    43    24    21    21    44    25    54    59    61    63    62    51    58    62    71    74    79    77    78    73    77    94    69    69    79    70    81    66    60    65    76    78   105    90    71    57    90    91    76    62    39    42    32    27     3    17    10    10    16    11    12    11    10    10    12     9     5    12    10    11    12    17    13    11     8    10     8     8    11    12     8    14    12    13    18    15    18    25    27    37    37    27    14    37    44    40    39    44    37    29    44    26    22    27    27    33    29    29    29    30    36    37    45    42    44    48    46    49    46    53    65    41    33    48    36    38    38    32    36    50    52    57    54    59    56    61    63    75    83    88    85    82    87    95    94    93  -999
-999  -999  -999  -999  -999  -999  -999  -999  -999  -999  -999  -999  -999  -999  -999  -999  -999  -999  -999  -999  -999  -999  -999  -999  -999  -999  -999  -999  -999  -999  -999  -999  -999  -999  -999  -999  -999  -999  -999  -999  -999  -999  -999  -999  -999  -999  -999  -999  -999  -999  -999  -999  -999  -999  -999  -999  -999  -999  -999  -999  -999  -999  -999  -999  -999  -999  -999  -999  -999  -999  -999    92    80    76    79    77    84    80    81    61    75    57    60    84    76    90    85    71    64    70    57    58    62    67    69    40    71    81    83    91    89    94    88   118    89    86    85    90   101    94   109    76    81    66    55    34    45    30    48    42    41    35    29    23    14    42    43    63    60    60    48    61    68    73    79    69    59    54    75    75    80    62    66    71    84    86    78    84    86    85    93   104   103   100   100    70    73    51    46    37    43    44    39     7    11     8    12    11    12    10    12    18     7    13    37    26    21    11    21    12    10    13    10    12    12    12    12    11    11    12    12    12    12    13     5    10    22    17     8    30    27    33    38    36    48    31    43    39    24    25    13    17    19    25    27    30    36    36    31    33    34    36    38    35    40    44    41    57    29    46    46    44    47    43    43    55    52    46    48    54    48    57    62    66    70    84    91    79    80    79    88   110   122   118   111  -999
-999  -999  -999  -999  -999  -999  -999  -999  -999  -999  -999  -999  -999  -999  -999  -999  -999  -999  -999  -999  -999  -999  -999  -999  -999  -999  -999  -999  -999  -999  -999  -999  -999  -999  -999  -999  -999  -999  -999  -999  -999  -999  -999  -999  -999  -999  -999  -999  -999  -999  -999  -999  -999  -999  -999  -999  -999  -999  -999  -999  -999  -999  -999  -999  -999  -999  -999  -999  -999  -999  -999    91    74    81    83    81    77    83    66    67    65    80    85    88    90    86    91    76    72    78    67    60    56    58    48    64    83    87    93   104    93    76    92    92    91    94   102    96    63    74    88    96    94    66    53    58    45    45    41    50    52    54    53    36    30    33    51    61    44    51    40    54    65    73    55    47    50    52    51    63    57    52    77    59    68    88    92    85    94    89    96    80    98   103    87    73    50    29    30    25    30    21    22    21    13    14    10    10    11     8    11    19    12    12    29    40    34    36    23    40    30     7    11    13    12    14    12    13    13    13    13    13    13    14    15    12    12    13    14    15    38    39    41    26    31    39    32    20    25     3    23    21    19    17    18    34    21    28    26    31    32    33    33    33    39    37    37    34    46    42    39    38    41    50    79    67    66    62    84    67    66    60    70    89    90   108    99    97    95    99    91   105   102   102   117  -999
-999  -999  -999  -999  -999  -999  -999  -999  -999  -999  -999  -999  -999  -999  -999  -999  -999  -999  -999  -999  -999  -999  -999  -999  -999  -999  -999  -999  -999  -999  -999  -999  -999  -999  -999  -999  -999  -999  -999  -999  -999  -999  -999  -999  -999  -999  -999  -999  -999  -999  -999  -999  -999  -999  -999  -999  -999  -999  -999  -999  -999  -999  -999  -999  -999  -999  -999  -999  -999  -999  -999  -999    91   102    90    92    98    93    80    81    86    86    80    85  -999  -999  -999    83    82    90    95    90    82    67    45    65    74    94    96    92    74    72    81    81    71    63    88    90    90    92    92    92    80    62    61    46    54    68    70    44    49    50    56    52    36    23    43    63    48    41    53    57    42    52    52    55    63    63    50    54    58    72    87    88    74    61    80    97   107    86    75    98    75    63    78    70    59    74    52    53    48    36    16    24    11     9     8     9     9     9    16    11    11    10    11    13    18    11    15    11    17     9    14     4    12    13    13    13    12    16    15     7     4    16    17     4    14    14    14    14    14    23    34    25    13    16    22    25    21     8    13    17    27    18    20    19    26    22    28    26    32    31    20    27    29    33    32    20    41    37    29    31    38    41    43    52    45    54    54    64    61    60    78    60    66    73    89   103    90    75    78    83    84    88    92  -999
-999  -999  -999  -999  -999  -999  -999  -999  -999  -999  -999  -999  -999  -999  -999  -999  -999  -999  -999  -999  -999  -999  -999  -999  -999  -999  -999  -999  -999  -999  -999  -999  -999  -999  -999  -999  -999  -999  -999  -999  -999  -999  -999  -999  -999  -999  -999  -999  -999  -999  -999  -999  -999  -999  -999  -999  -999  -999  -999  -999  -999  -999  -999  -999  -999  -999  -999  -999  -999  -999  -999  -999  -999   109    96    93    85    86    90    79    80    87  -999  -999  -999  -999  -999  -999    89    87    83    80    89    84    64    66    83    81    95    92    94    77    72    62    71    82    77    49    71    77    71    78    83    82    73    58    69    93    84    66    60    61    72    91    68    24    38    30    38    52    54    41    53    53    52    55    62    52    60    65    60    68    95    95    82    71    70    81   101   105   100    94    79    57    63    56    63    54    53    53    46    37    32    39    16    11     8     9    10    17    18     7    13    26    12    25    14    11    15    21    10    14    15    20     8    15    11    11     4    16    27    43    57    62    54    11    11    14    16    15    14    17    16    15    14    12    16    16     6    17    11    14    12    13    15    16    11    19    20    23    25    33    27    24    29    30    25    31    28    28    32    30    34    37    41    38    50    63    71    70    73    70    82    72    68    73    76    81    69    63    64    72    83    77    81  -999
-999  -999  -999  -999  -999  -999  -999  -999  -999  -999  -999  -999  -999  -999  -999  -999  -999  -999  -999  -999  -999  -999  -999  -999  -999  -999  -999  -999  -999  -999  -999  -999  -999  -999  -999  -999  -999  -999  -999  -999  -999  -999  -999  -999  -999  -999  -999  -999  -999  -999  -999  -999  -999  -999  -999  -999  -999  -999  -999  -999  -999  -999  -999  -999  -999  -999  -999  -999  -999  -999  -999  -999  -999  -999   108    88    98    92    94  -999  -999  -999  -999  -999  -999  -999  -999  -999  -999  -999    78    91    86    90    84    78    75    87    89    93    91    83    85    76    79    74    81    66    62    56    60    54    60    65    79    88   100    85    77    67    72    89    81    73    54    41    35    35    40    53    65    64    84    59    68    59    54    51    62    54    52    65    67    79    86    78    74    91   100   107   103   101    81    50    74    51    55    31    31    23    34    23    39    27    23    14    10    13    11    11    12    12    14    10    18    18    14    15    20    14    16     8    11    22    23    18    13    13    13    17    16    17    13    12     6    11    17    14    11    16    17     4     4    14    15    18    16    16    15    24    19    16     7    16    19    17    18    20    23    25    27    26    30    18    21    22    28    25    31    26    24    29    33    36    37    46    57    61    61    54    52    51    52    61    59    65    64    61    69    63    72    74    70    70    71  -999
-999  -999  -999  -999  -999  -999  -999  -999  -999  -999  -999  -999  -999  -999  -999  -999  -999  -999  -999  -999  -999  -999  -999  -999  -999  -999  -999  -999  -999  -999  -999  -999  -999  -999  -999  -999  -999  -999  -999  -999  -999  -999  -999  -999  -999  -999  -999  -999  -999  -999  -999  -999  -999  -999  -999  -999  -999  -999  -999  -999  -999  -999  -999  -999  -999  -999  -999  -999  -999  -999  -999  -999  -999  -999  -999  -999  -999  -999  -999  -999  -999  -999  -999  -999  -999  -999  -999  -999  -999  -999  -999  -999  -999  -999    79    83    85    82    87    99    81    82    71    75    76    66    63    67    74    66    62    43    53    65    70    72    71    77    66    68    70    77    80    50    33    29    32    58    70    64    69    52    72    58    70    56    63    65    64    46    57    52    55    80    78    75    81    83    96   124    98    82    62    68    35    35    35    40    37    32    18    20    23    16    14    13    12    11    11    14    11    18    17    15    10     9    14    25    15    10    12     8    18    16    22    18    21    17    24    15    28     8    15     6    15    16    18    16     7    15    13    14    15    16    11    20     4    11    20    19    17    31    18    21    20    19    20    21    16    16    28    32    31    22    20    25    22    28    23    24    21    21    32    35    41    64    49    53    49    47    47    47    59    52    56    59    57    62    67    64    62    65    61    64    59  -999
-999  -999  -999  -999  -999  -999  -999  -999  -999  -999  -999  -999  -999  -999  -999  -999  -999  -999  -999  -999  -999  -999  -999  -999  -999  -999  -999  -999  -999  -999  -999  -999  -999  -999  -999  -999  -999  -999  -999  -999  -999  -999  -999  -999  -999  -999  -999  -999  -999  -999  -999  -999  -999  -999  -999  -999  -999  -999  -999  -999  -999  -999  -999  -999  -999  -999  -999  -999  -999  -999  -999  -999  -999  -999  -999  -999  -999  -999  -999  -999  -999  -999  -999  -999  -999  -999  -999  -999  -999  -999  -999  -999  -999  -999  -999  -999  -999  -999    86    98    88    82    76    64    60    57    56    80    86    73    59    68    66    68    74    81    69    85    85    86    49    60    67    40    31    58    51    51    72    81    73    48    48    57    57    47    45    70    53    47    61    70    57    65    71    86    89    88    85    89   121   109    79    90    71    54    46    41    36    26    27    30    20    16    14    15    20    11    13     8    14     6    15     5     8     9     9    20     4    14    15    14    15    32    30    20    15    21    20    21    17    20    27    14    21    18    15     7    16    15    15    16    16    15    15    13    15    12    12    15    14    16    24    27    20    17    19    26    24    19    21    22    18    17    23    32    29    30    30    29    26    40    24    32    47    53    50    48    42    46    45    45    46    49    59    69    71    70    68    63    70    68    60    59    69  -999
-999  -999  -999  -999  -999  -999  -999  -999  -999  -999  -999  -999  -999  -999  -999  -999  -999  -999  -999  -999  -999  -999  -999  -999  -999  -999  -999  -999  -999  -999  -999  -999  -999  -999  -999  -999  -999  -999  -999  -999  -999  -999  -999  -999  -999  -999  -999  -999  -999  -999  -999  -999  -999  -999  -999  -999  -999  -999  -999  -999  -999  -999  -999  -999  -999  -999  -999  -999  -999  -999  -999  -999  -999  -999  -999  -999  -999  -999  -999  -999  -999  -999  -999  -999  -999  -999  -999  -999  -999  -999  -999  -999  -999  -999  -999  -999  -999  -999    94    89    85    78    70    70    63    55    56    68    51    63    58    55    81    73    67    74    72    82    81    80    59    51    45    23    56    55    50    45    45    49    46    42    44    53    52    57    45    58    49    56    59    51    65    77    70    73    88    77    86    89    82    71    75    59    46    51    80    61    63    35    44    28    24    14    18    23    15    12    18    12    12    20    18    11    11    16     8    11    14    14    15    11    20    29    23    15    18    16    23    24    25    22    23    21    23    11     7    15    11    17    11    25    18    17    15    13    14    15    12    19    17    19    17    19    19    31    14    20    20    23    21    29    23    22    16    17    18    26    30    31    22    29    26    22    25    26    48    44    40    35    44    41    41    48    50    57    64    78    69    60    65    65    61    58    48  -999
-999  -999  -999  -999  -999  -999  -999  -999  -999  -999  -999  -999  -999  -999  -999  -999  -999  -999  -999  -999  -999  -999  -999  -999  -999  -999  -999  -999  -999  -999  -999  -999  -999  -999  -999  -999  -999  -999  -999  -999  -999  -999  -999  -999  -999  -999  -999  -999  -999  -999  -999  -999  -999  -999  -999  -999  -999  -999  -999  -999  -999  -999  -999  -999  -999  -999  -999  -999  -999  -999  -999  -999  -999  -999  -999  -999  -999  -999  -999  -999  -999  -999  -999  -999  -999  -999  -999  -999  -999  -999  -999  -999  -999  -999  -999  -999  -999  -999    87    92    92    94    81    76    57    63    59    62    48    59    54    60    66    68    70    77    81    73    66    61    52    46    28    44    48    46    49    48    50    55    52    50    54    55    60    67    54    76    54    51    78    59    70    74    65    77    62    75    72    70    80   101    75    55    57    50    36    45    49    31    26    23    22    22    20    26    16    16    16     8    15    12    13     6    12    16    17    20    24    11    11    26    15    19    25    19    17    22    31    24    25    21    25    24    24    24    24    20    23    17    15    11    27    16    16    15    16    15    18    17    18    17    18    17    18    17    15    26    27    13    16    19    19    20    21    18    21    27    26    26    29    27    27    25    29    24    25    28    36    39    32    41    38    40    51    55    59    71    58    54    64    51    62    65    78  -999
-999  -999  -999  -999  -999  -999  -999  -999  -999  -999  -999  -999  -999  -999  -999  -999  -999  -999  -999  -999  -999  -999  -999  -999  -999  -999  -999  -999  -999  -999  -999  -999  -999  -999  -999  -999  -999  -999  -999  -999  -999  -999  -999  -999  -999  -999  -999  -999  -999  -999  -999  -999  -999  -999  -999  -999  -999  -999  -999  -999  -999  -999  -999  -999  -999  -999  -999  -999  -999  -999  -999  -999  -999  -999  -999  -999  -999  -999  -999  -999  -999  -999  -999  -999  -999  -999  -999  -999  -999  -999  -999  -999  -999  -999  -999  -999  -999    80    80    88    86    91    74    62    61    52    56    56    55    56    61    63    75    74    77    74    70    55    66    66    59    45    42    26    41    47    38    40    43    53    58    59    58    63    64    71    63    54    61    64    66    57    76    73    71    66    82   105    71    91    91    98    81    84    62    50    41    39    33    32    35    27    27    17    20    17    18    17    24    12    11    11    13    12    11    20    17    17    14    13    13    16    18    19    17    21    26    26    29    28    25    27    25    26    23    23    23    19    19    20    24    13    16    24    26    24    16    17    13    15    16    17    19    15    19    23    15    13    11    14    23    24    19    19    19    19    17    24    23    16    18    18    17    22    23    25    26    28    30    25    28    32    37    40    43    48    55    45    49    52    59    65    57    63    64  -999
-999  -999  -999  -999  -999  -999  -999  -999  -999  -999  -999  -999  -999  -999  -999  -999  -999  -999  -999  -999  -999  -999  -999  -999  -999  -999  -999  -999  -999  -999  -999  -999  -999  -999  -999  -999  -999  -999  -999  -999  -999  -999  -999  -999  -999  -999  -999  -999  -999  -999  -999  -999  -999  -999  -999  -999  -999  -999  -999  -999  -999  -999  -999  -999  -999  -999  -999  -999  -999  -999  -999  -999  -999  -999  -999  -999  -999  -999  -999  -999  -999  -999  -999  -999  -999  -999  -999  -999  -999  -999  -999  -999  -999  -999  -999    70    71    77    82    89    89    82    60    67    54    50    54    60    57    50    54    57    58    59    66    57    60    72    72    71    64    50    42    26    38    43    32    35    48    52    54    53    59    72    68    82    78    61    60    48    52    52    64    64    71    84    76    81    94    90    94    89    81    76    66    41    40    34    32    32    46    32    27    23    21    13    16    15    15    13    16    17    17    13    12    14    13    15    18    19    18    19    17    24    18    25    22    24    19    22    24    27    19    13    25    24    14    19    19    24    23    20    20    14    15    17    12    17    15    14    16    17    22    17    16    21    26    15    17    16    17    17    18    19    19    18    19    21    20    28    20    21    19    15    26    31    23    27    32    34    25    25    31    33    44    45    49    44    48    40    39    40    49    59    72  -999
-999  -999  -999  -999  -999  -999  -999  -999  -999  -999  -999  -999  -999  -999  -999  -999  -999  -999  -999  -999  -999  -999  -999  -999  -999  -999  -999  -999  -999  -999  -999  -999  -999  -999  -999  -999  -999  -999  -999  -999  -999  -999  -999  -999  -999  -999  -999  -999  -999  -999  -999  -999  -999  -999  -999  -999  -999  -999  -999  -999  -999  -999  -999  -999  -999  -999  -999  -999  -999  -999  -999  -999  -999  -999  -999  -999  -999  -999  -999  -999  -999  -999  -999  -999  -999  -999  -999  -999  -999  -999  -999  -999  -999  -999  -999    69    65    78    86    88    83    89    70    56    56    58    50    51    50    43    60    48    60    56    54    44    63    58    45    61    52    41    38    39    45    42    45    49    46    50    51    54    56    63    67    62    61    51    64    60    53    67    50    63    68    60    82    72    75    88    86    93    90    54    46    41    37    36    35    34    29    42    27    24    18    16    15    23    12    14    16    15    16    15    13    14    17    16    18    13    16    27    23    26    25    19    18    20    22    20    26    25    22    27    20    23    23    26    23    15    25    18    18    16    12    19    17    18    13    16    17    17    15    15    16    15    17    20    18    18    17    18    23    24    28    20    20    27    26    23    33    19    23    26    26    25    31    32    30    24    32    26    24    41    47    52    44    45    38    37    38    45    47    49    54  -999
-999  -999  -999  -999  -999  -999  -999  -999  -999  -999  -999  -999  -999  -999  -999  -999  -999  -999  -999  -999  -999  -999  -999  -999  -999  -999  -999  -999  -999  -999  -999  -999  -999  -999  -999  -999  -999  -999  -999  -999  -999  -999  -999  -999  -999  -999  -999  -999  -999  -999  -999  -999  -999  -999  -999  -999  -999  -999  -999  -999  -999  -999  -999  -999  -999  -999  -999  -999  -999  -999  -999  -999  -999  -999  -999  -999  -999  -999  -999  -999  -999  -999  -999  -999  -999  -999  -999  -999  -999  -999  -999  -999  -999  -999  -999    70    60    68    87    71    80    73    51    74    83    81    60    58    58    54    71    77    63    61    63    60    55    48    41    52    44    43    38    60    50    51    50    51    52    53    52    59    57    57    61    66    55    72    53    61    55    58    51    56    62    62    69    75    72    88    79    45    37    40    37    49    32    27    28    21    23    26    26    29    23    15    23    24    20    21    15    15    15    14    14    18    24    28    47    21    13    17    17    17    18    20    17    13    16    13    19    22    32    19    13    26    14    23    21    16    22    31    21    16    15    16    14    16    15    15    15    16    14    18    16    17    19    18    18    20    19    16    18    21    22    20    26    17    17    20    21    20    21    21    31    31    30    31    29    27    24    37    27    43    43    48    44    34    36    38    46    42    43    49    53  -999
-999  -999  -999  -999  -999  -999  -999  -999  -999  -999  -999  -999  -999  -999  -999  -999  -999  -999  -999  -999  -999  -999  -999  -999  -999  -999  -999  -999  -999  -999  -999  -999  -999  -999  -999  -999  -999  -999  -999  -999  -999  -999  -999  -999  -999  -999  -999  -999  -999  -999  -999  -999  -999  -999  -999  -999  -999  -999  -999  -999  -999  -999  -999  -999  -999  -999  -999  -999  -999  -999  -999  -999  -999  -999  -999  -999  -999  -999  -999  -999  -999  -999  -999  -999  -999  -999  -999  -999  -999  -999  -999  -999  -999  -999  -999  -999    62    69    56    54    57    65    85    81    69    87    82    71    68    63    75    64    53    61    60    76    62    65    56    37    37    34    50    37    49    56    48    58    48    54    54    53    55    57    59    49    65    57    68    67    61    60    56    63    56    65    83    74    82    99    84    68    56    38    23    30    43    47    40    34    28    23    23    18    21    17    18    18    15    15    13    12    17    25    30    42    39    44    47    32    16    31    16    24    16    13    18    28    17    24    18    21    21    21    25    17    21    22    25    19    23    11    14    23    12    18    18    22    17    16    16    20    18    18    17    16    18    13    15    19    19    21    20    17    22    19    18    19    20    17    19    20    20    24    24    14    27    29    19    27    33    30    27    30    48    43    41    33    43    37    44    45    47    52    69  -999
-999  -999  -999  -999  -999  -999  -999  -999  -999  -999  -999  -999  -999  -999  -999  -999  -999  -999  -999  -999  -999  -999  -999  -999  -999  -999  -999  -999  -999  -999  -999  -999  -999  -999  -999  -999  -999  -999  -999  -999  -999  -999  -999  -999  -999  -999  -999  -999  -999  -999  -999  -999  -999  -999  -999  -999  -999  -999  -999  -999  -999  -999  -999  -999  -999  -999  -999  -999  -999  -999  -999  -999  -999  -999  -999  -999  -999  -999  -999  -999  -999  -999  -999  -999  -999  -999  -999  -999  -999  -999  -999  -999  -999  -999  -999  -999    67    56    64    62    78    81    88    86    76    83    71    70    74    70    64    63    49    51    49    58    59    59    49    43    44    42    42    34    48    50    51    53    54    47    54    54    57    55    47    57    56    77    81    67    63    60    58    62    75    79    74    71    69    92   109    90    46    33    30    33    24    21    27    31    24    25    22    29    16    20    13    19    17    15    17    20    28    29    32    37    37    29    34    20    25    31    33    25    34    35    29    20    19    26    18    31    25    23    19    23    17    19    31    19    21    24    29    18    20    24    19    17    17    17    16    19    20    19    19    18    19    17    18    17    19    19    19    22    15    19    19    20    21    18    21    20    17    21    20    25    34    22    30    31    32    35    36    41    31    35    39    32    39    40    45    48    57    57    41  -999
-999  -999  -999  -999  -999  -999  -999  -999  -999  -999  -999  -999  -999  -999  -999  -999  -999  -999  -999  -999  -999  -999  -999  -999  -999  -999  -999  -999  -999  -999  -999  -999  -999  -999  -999  -999  -999  -999  -999  -999  -999  -999  -999  -999  -999  -999  -999  -999  -999  -999  -999  -999  -999  -999  -999  -999  -999  -999  -999  -999  -999  -999  -999  -999  -999  -999  -999  -999  -999  -999  -999  -999  -999  -999  -999  -999  -999  -999  -999  -999  -999  -999  -999  -999  -999  -999  -999  -999  -999  -999  -999  -999  -999  -999  -999  -999    78    83    89  -999  -999  -999  -999  -999   105    91    85    78    87    72    69    66    68    66    64    52    57    57    49    46    44    50    46    49    43    40    48    38    49    59    49    48    55    46    51    60    62    64    68    62    61    61    62    84    66    56    58    84    86    63    56    59    53    42    25    25    25    17    15    13    15    17    17    24    11    10     7    12    15    -2    16    27    30    37    23    32    15    17    17    17    18    21    28    31    45    42    25    22    26    16    25    16    17    19    16    31    19    23    33    23    22    22    27    21    21    20    26    23    24    18    27    24    24    32    18    18    20    18    20    19    19    16    20    22    16    22    22    34    21    22    20    23    21    22    23    23    20    22    28    23    30    21    29    35    33    46    46    37    59    71    51    45    45    43    40  -999
-999  -999  -999  -999  -999  -999  -999  -999  -999  -999  -999  -999  -999  -999  -999  -999  -999  -999  -999  -999  -999  -999  -999  -999  -999  -999  -999  -999  -999  -999  -999  -999  -999  -999  -999  -999  -999  -999  -999  -999  -999  -999  -999  -999  -999  -999  -999  -999  -999  -999  -999  -999  -999  -999  -999  -999  -999  -999  -999  -999  -999  -999  -999  -999  -999  -999  -999  -999  -999  -999  -999  -999  -999  -999  -999  -999  -999  -999  -999  -999  -999  -999  -999  -999  -999  -999  -999  -999  -999  -999  -999  -999  -999  -999  -999  -999  -999  -999  -999  -999  -999  -999  -999  -999  -999  -999    97    88    95    82    73    68    56    70    67    56    67    51    62    50    39    46    39    49    51    48    43    46    50    48    53    50    50    51    56    54    67    73    61    64    73    74    69    72    70    55    62    45    48    51    52    36    24    21    44    20    16     8    16    23    10    13    16    25    21     6     8    12    16    26    10    14    11    13    13    15    15    14    17    17    19    24    21    20    19    18    18    17    17    17    17    17    10    19    19    22    12    28    26    25    18    20    23    18    21    18    29    14    19    17    19    19    22    26    21    13    21    18    17    17    18    19    20    25    27    20    21    15    21    20    24    21    22    21    22    25    23    23    34    32    23    28    30    28    35    38    40    40    47    38    44    39    38    38    37  -999
-999  -999  -999  -999  -999  -999  -999  -999  -999  -999  -999  -999  -999  -999  -999  -999  -999  -999  -999  -999  -999  -999  -999  -999  -999  -999  -999  -999  -999  -999  -999  -999  -999  -999  -999  -999  -999  -999  -999  -999  -999  -999  -999  -999  -999  -999  -999  -999  -999  -999  -999  -999  -999  -999  -999  -999  -999  -999  -999  -999  -999  -999  -999  -999  -999  -999  -999  -999  -999  -999  -999  -999  -999  -999  -999  -999  -999  -999  -999  -999  -999  -999  -999  -999  -999  -999  -999  -999  -999  -999  -999  -999  -999  -999  -999  -999  -999  -999  -999  -999  -999  -999  -999  -999  -999  -999  -999    99    96    90    82    65    70    57    51    58    60    94    72    45    51    45    40    49    46    54    65    74    62    56    54    56    52    58    53    62    60    78    74    71    62    77    72    58    68    63    45    43    39    38    34    39    61    58    46    25    24    26    36    40    24    18    21    19     3     2     6     6     6     2     7    16    21    24    11    13    25    20    21    18    22    18    19    16    16    16    16    18    18    14    23    33    21    31    36    20    20    20    30    26    24    25    29    30    31    35    14    14    11    24    22    13    18    29    20    19    20    20    21    18    24    18    23    17    20    20    20    20    18    22    22    24    21    21    18    22    22    23    29    24    18    18    31    49    41    41    43    48    39    43    41    38    36    36    36  -999
-999  -999  -999  -999  -999  -999  -999  -999  -999  -999  -999  -999  -999  -999  -999  -999  -999  -999  -999  -999  -999  -999  -999  -999  -999  -999  -999  -999  -999  -999  -999  -999  -999  -999  -999  -999  -999  -999  -999  -999  -999  -999  -999  -999  -999  -999  -999  -999  -999  -999  -999  -999  -999  -999  -999  -999  -999  -999  -999  -999  -999  -999  -999  -999  -999  -999  -999  -999  -999  -999  -999  -999  -999  -999  -999  -999  -999  -999  -999  -999  -999  -999  -999  -999  -999  -999  -999  -999  -999  -999  -999  -999  -999  -999  -999  -999  -999  -999  -999  -999  -999  -999  -999  -999  -999  -999  -999  -999   109    86    77    59    66    75    68    69    88   107    69    53    39    50    56    51    56    61    81   106    92    66    55    56    59    64    67    56    57    58    60    65    71    67    66    64    93    80    57    50    46    39    46    55    57    39    29    26    19    35    55    36    32    30    33    30    22    19    12     3    10    10    13    16    15    16    14    26    19    17    16    15    17    25    20    18    18    24    21    20    20    23    25    31    30    34    33    33    34    30    28    28    32    61    34    36    26    25    23    13    22    24    21    24    33    47    38    23    18    19    17    18    18    19    19    19    21    23    18    20    22    20    21    22    22    22    21    18    22    18    15    22    19    22    36    56    55    43    49    35    32    43    46    42    51    39    40  -999
-999  -999  -999  -999  -999  -999  -999  -999  -999  -999  -999  -999  -999  -999  -999  -999  -999  -999  -999  -999  -999  -999  -999  -999  -999  -999  -999  -999  -999  -999  -999  -999  -999  -999  -999  -999  -999  -999  -999  -999  -999  -999  -999  -999  -999  -999  -999  -999  -999  -999  -999  -999  -999  -999  -999  -999  -999  -999  -999  -999  -999  -999  -999  -999  -999  -999  -999  -999  -999  -999  -999  -999  -999  -999  -999  -999  -999  -999  -999  -999  -999  -999  -999  -999  -999  -999  -999  -999  -999  -999  -999  -999  -999  -999  -999  -999  -999  -999  -999  -999  -999  -999  -999  -999  -999  -999  -999    96    73    98   101    81    76    82    76    95    87   108    82    61    59    64    60    68    65    88   109   102   108    94    67    57    57    58    63    59    59    81    63    61    82    92    89    69    72    53    39    38    36    52    49    62    58    34    34    26    28    22    26    33    36    23    36    37    40    36    22    18    20    21    16    16    18    17    18    32    35    20    32    25    21    22    22    16    18    26    24    25    27    41    33    31    28    28    41    28    32    32    36    44    58    46    32    34    29    26    22    23    19    22    27    34    41    44    51    51    17    21    22    18    18    20    21    20    19    19    23    20    21    20    20    21    22    22    17    24    27    22    24    31    23    23    46    40    44    29    43    45    38    40    41    41    46    41    47  -999
-999  -999  -999  -999  -999  -999  -999  -999  -999  -999  -999  -999  -999  -999  -999  -999  -999  -999  -999  -999  -999  -999  -999  -999  -999  -999  -999  -999  -999  -999  -999  -999  -999  -999  -999  -999  -999  -999  -999  -999  -999  -999  -999  -999  -999  -999  -999  -999  -999  -999  -999  -999  -999  -999  -999  -999  -999  -999  -999  -999  -999  -999  -999  -999  -999  -999  -999  -999  -999  -999  -999  -999  -999  -999  -999  -999  -999  -999  -999  -999  -999  -999  -999  -999  -999  -999  -999  -999  -999  -999  -999  -999  -999  -999  -999  -999  -999  -999  -999  -999  -999  -999  -999  -999  -999  -999    97   103    94    95    96    93    97    84    87    99    92    99   101    98    82    68    64    68    74    84    87    91    91    98    89    61    60    61    67    66    67    68    79    57    69    77    84    94    96    79    54    63    38    33    36    28    31    35    43    40    34    31    32    25    49    33    42    42    34    32    23    17    23    20    26    22    21    20    23    29    34    31    42    32    26    41    25    17    25    26    22    16    25    27    33    25    29    27    37    26    28    29    32    37    59    39    44    29    27    28    29    29    24    25    34    57    51    56    56    53    51    15    17    18    16    20    17    20    19    20    19    22    22    21    22    20    23    21    26    22    22    21    21    21    26    21    20    42    44    42    42    34    42    41    46    47    53    48    26  -999
-999  -999  -999  -999  -999  -999  -999  -999  -999  -999  -999  -999  -999  -999  -999  -999  -999  -999  -999  -999  -999  -999  -999  -999  -999  -999  -999  -999  -999  -999  -999  -999  -999  -999  -999  -999  -999  -999  -999  -999  -999  -999  -999  -999  -999  -999  -999  -999  -999  -999  -999  -999  -999  -999  -999  -999  -999  -999  -999  -999  -999  -999  -999  -999  -999  -999  -999  -999  -999  -999  -999  -999  -999  -999  -999  -999  -999  -999  -999  -999  -999  -999  -999  -999  -999  -999  -999  -999  -999  -999  -999  -999  -999  -999  -999  -999  -999  -999  -999  -999  -999  -999  -999  -999  -999  -999   109   102   107   107   108    87    96   102   105   107   110   114   101    95    95    85    68    86    95    90    76    67    68    70    64    62    60    59    54    55    71    86    66    66    70    76    86    85    74    75    61    54    59    61    65    60    59    58    35    38    28    32    29    25    30    39    32    36    30    20    27    34    24    26    26    19    31    33    36    44    49    44    37    36    34    45    39    26    26    27    16    23    28    25    28    21    23    24    25    26    28    29    32    48    55    37    25    32    31    29    27    27    36    41    47    46    52    60    59    61    58    22    13    18    20    19    17    17    24    17    19    22    20    20    14    20    22    21    22    22    25    21    23    23    22    20    19    39    47    44    50    41    33    29    29    28    26    26    24  -999
-999  -999  -999  -999  -999  -999  -999  -999  -999  -999  -999  -999  -999  -999  -999  -999  -999  -999  -999  -999  -999  -999  -999  -999  -999  -999  -999  -999  -999  -999  -999  -999  -999  -999  -999  -999  -999  -999  -999  -999  -999  -999  -999  -999  -999  -999  -999  -999  -999  -999  -999  -999  -999  -999  -999  -999  -999  -999  -999  -999  -999  -999  -999  -999  -999  -999  -999  -999  -999  -999  -999  -999  -999  -999  -999  -999  -999  -999  -999  -999  -999  -999  -999  -999  -999  -999  -999  -999  -999  -999  -999  -999  -999  -999  -999  -999  -999  -999  -999  -999  -999  -999  -999  -999  -999  -999  -999   115   112  -999  -999  -999  -999  -999  -999  -999  -999   112   111   105   114    94    91   102    94    97    79    63    70    65    66    65    64    65    58    67    70    68    58    76    67    75    86    76    70    66    60    60    68    59    55    62    60    44    39    45    37    28    28    26    26    27    45    24    34    36    38    33    31    32    27    22    20    24    30    30    43    51    36    31    35    43    39    30    29    29    28    26    27    28    28    28    27    31    33    29    31    31    35    39    41    26    28    34    50    37    34    33    23    31    42    48    48    64    68    66    47    14     9     9    18    14    19    20    19    18    17    17    19    21    18    19    23    20    21    20    22    25    23    23    22    18    26    17    28    45    22    22    23    23    26    22    16    18    16  -999
-999  -999  -999  -999  -999  -999  -999  -999  -999  -999  -999  -999  -999  -999  -999  -999  -999  -999  -999  -999  -999  -999  -999  -999  -999  -999  -999  -999  -999  -999  -999  -999  -999  -999  -999  -999  -999  -999  -999  -999  -999  -999  -999  -999  -999  -999  -999  -999  -999  -999  -999  -999  -999  -999  -999  -999  -999  -999  -999  -999  -999  -999  -999  -999  -999  -999  -999  -999  -999  -999  -999  -999  -999  -999  -999  -999  -999  -999  -999  -999  -999  -999  -999  -999  -999  -999  -999  -999  -999  -999  -999  -999  -999  -999  -999  -999  -999  -999  -999  -999  -999  -999  -999  -999  -999  -999  -999  -999  -999  -999  -999  -999  -999  -999  -999  -999  -999  -999   114    96    86    94    92    94    87    77    66    60    67    70    70    66    68    69    70    81    70    63    58    61    71    82   101    92    80    73    62    63    50    37    33    38    33    41    35    32    37    31    31    29    23    28    35    32    38    43    49    73    76    56    42    25    21    19    27    23    32    31    28    32    40    37    34    39    38    27    26    28    28    29    29    32    38    36    42    33    32    32    39    33    29    21    28    30    28    25    25    20    26    40    35    38    46    38    35    46    52    23    12    19    17    21    25    32    19    19    18    21    17    21    23    20    19    19    21    26    23    23    27    27    23    26    19    22    24    23    17    14    27    14    22    20    18    17    22  -999
